# .PCD v0.7 - Point Cloud Data file format
VERSION 0.7
FIELDS x y z
SIZE 4 4 4
TYPE F F F
COUNT 1 1 1
WIDTH 1797
HEIGHT 1
VIEWPOINT 0 0 0 1 0 0 0
POINTS 1797
DATA ascii
-5.625 -2.4749999 -2.325
-5.3249998 -2.925 -2.325
-5.3249998 -2.7750001 -2.175
-4.875 -2.925 -2.175
-5.3249998 -2.4749999 -2.175
-5.1750002 -2.4749999 -2.175
-5.1750002 -2.7750001 -2.0250001
-5.0250001 -2.7750001 -1.875
-5.0250001 -2.4749999 -2.0250001
-4.875 -2.4749999 -1.875
-4.875 -2.7750001 -1.725
-5.0250001 -2.625 -1.275
-4.875 -2.625 -0.97500002
-8.4750004 -1.575 -1.875
-9.0749998 -1.575 -1.575
-9.375 -1.275 -1.575
-9.0749998 -1.275 -1.575
-8.7749996 -1.575 -1.725
-8.1750002 -1.575 -1.875
-8.0249996 -1.725 -2.0250001
-7.875 -1.725 -2.0250001
-7.5749998 -1.725 -2.0250001
-7.4250002 -1.575 -2.0250001
-7.875 -1.575 -1.725
-7.7249999 -1.425 -1.725
-7.5749998 -1.425 -1.575
-7.2750001 -1.425 -1.425
-8.625 -1.125 -1.725
-8.3249998 -1.125 -1.725
-8.0249996 -1.125 -1.725
-7.875 -1.125 -1.575
-8.1750002 -1.125 -1.275
-7.875 -1.125 -1.275
-7.5749998 -1.125 -1.575
-7.2750001 -1.125 -1.575
-7.5749998 -1.125 -1.425
-7.7249999 -1.125 -1.275
-7.2750001 -1.125 -1.425
-8.625 -1.125 -1.125
-9.375 -0.67500001 -0.22499999
-8.9250002 -0.52499998 -0.375
-8.625 -0.52499998 -0.375
-7.875 -0.67500001 -0.67500001
-7.4250002 -1.125 -1.125
-7.2750001 -0.97500002 -0.97500002
-7.5749998 -0.67500001 -0.67500001
-7.2750001 -0.67500001 -0.67500001
-8.3249998 -0.52499998 -0.375
-8.0249996 -0.52499998 -0.375
-7.7249999 -0.52499998 -0.22499999
-7.4250002 -0.52499998 -0.22499999
-7.125 -1.875 -2.325
-6.9749999 -1.875 -2.325
-6.8249998 -1.875 -2.325
-6.6750002 -1.875 -2.175
-6.2249999 -2.175 -2.325
-6.0749998 -2.175 -2.325
-6.0749998 -2.175 -2.175
-6.5250001 -1.875 -2.175
-6.375 -1.875 -2.175
-6.0749998 -2.0250001 -2.0250001
-6.2249999 -1.875 -2.0250001
-6.0749998 -1.875 -1.875
-7.125 -1.575 -1.875
-6.6750002 -1.725 -1.875
-7.125 -1.425 -1.875
-6.9749999 -1.425 -1.875
-6.9749999 -1.575 -1.725
-6.6750002 -1.575 -1.725
-7.125 -1.425 -1.575
-6.9749999 -1.275 -1.575
-6.6750002 -1.425 -1.725
-7.125 -1.275 -1.275
-6.8249998 -1.275 -1.425
-6.375 -1.725 -1.725
-6.2249999 -1.725 -1.725
-6.0749998 -1.725 -1.575
-6.5250001 -1.425 -1.725
-6.5250001 -1.425 -1.575
-6.2249999 -1.425 -1.575
-6.0749998 -1.425 -1.575
-6.375 -1.425 -1.425
-6.5250001 -1.275 -1.275
-6.2249999 -1.425 -1.275
-5.9250002 -2.325 -2.325
-5.7750001 -2.175 -2.325
-5.7750001 -2.325 -2.175
-5.4749999 -2.325 -2.175
-5.625 -2.175 -2.175
-5.7750001 -2.325 -2.0250001
-5.9250002 -2.175 -2.0250001
-5.7750001 -2.175 -2.0250001
-5.7750001 -2.175 -1.875
-5.625 -2.325 -1.875
-5.625 -2.175 -1.875
-5.9250002 -2.0250001 -2.0250001
-5.625 -2.0250001 -1.875
-5.3249998 -2.325 -2.0250001
-5.1750002 -2.325 -2.0250001
-5.1750002 -2.325 -1.875
-5.0250001 -2.325 -1.875
-5.625 -2.175 -1.725
-5.4749999 -2.175 -1.725
-5.4749999 -2.325 -1.575
-5.9250002 -1.875 -1.725
-5.7750001 -1.875 -1.575
-5.4749999 -1.875 -1.425
-5.3249998 -2.175 -1.575
-5.1750002 -2.175 -1.575
-5.0250001 -2.325 -1.575
-5.1750002 -2.175 -1.425
-5.1750002 -2.175 -1.275
-5.0250001 -2.325 -1.425
-5.0250001 -2.175 -1.425
-4.875 -2.175 -1.425
-4.875 -2.325 -1.275
-5.3249998 -2.0250001 -1.425
-5.1750002 -2.0250001 -1.275
-5.3249998 -1.875 -1.275
-5.7750001 -1.725 -1.425
-5.625 -1.575 -1.275
-5.7750001 -1.425 -1.425
-6.9749999 -1.125 -1.425
-7.125 -1.125 -1.275
-6.8249998 -1.125 -1.425
-6.5250001 -1.125 -1.275
-6.375 -1.275 -1.125
-6.375 -1.275 -0.97500002
-6.0749998 -1.275 -1.125
-6.0749998 -1.275 -0.97500002
-6.2249999 -1.275 -0.82499999
-5.0250001 -2.175 -1.125
-4.875 -2.175 -0.97500002
-5.1750002 -2.0250001 -1.125
-5.0250001 -2.0250001 -0.97500002
-4.875 -2.325 -0.67500001
-4.875 -2.0250001 -0.67500001
-5.4749999 -1.575 -1.125
-5.9250002 -1.275 -0.97500002
-5.9250002 -1.275 -0.67500001
-5.7750001 -1.275 -0.67500001
-5.625 -1.425 -0.82499999
-5.3249998 -1.575 -1.125
-5.1750002 -1.575 -0.97500002
-5.3249998 -1.575 -0.82499999
-5.0250001 -1.575 -0.82499999
-5.0250001 -1.575 -0.67500001
-5.3249998 -1.425 -0.67500001
-4.875 -2.0250001 -0.375
-5.4749999 -1.425 -0.52499998
-5.625 -1.275 -0.375
-5.4749999 -1.275 -0.075000003
-5.1750002 -1.575 -0.375
-4.875 -1.575 -0.375
-4.875 -1.575 -0.22499999
-5.0250001 -1.575 -0.075000003
-6.9749999 -1.125 -0.97500002
-6.8249998 -1.125 -1.125
-6.6750002 -1.125 -0.97500002
-6.5250001 -1.125 -0.97500002
-6.2249999 -1.125 -0.67500001
-7.125 -0.97500002 -0.52499998
-6.9749999 -0.97500002 -0.375
-6.8249998 -0.97500002 -0.52499998
-7.125 -0.82499999 -0.52499998
-6.9749999 -0.67500001 -0.52499998
-6.6750002 -0.67500001 -0.375
-6.0749998 -1.125 -0.52499998
-6.5250001 -0.67500001 -0.22499999
-6.2249999 -0.67500001 -0.075000003
-7.125 -0.52499998 -0.075000003
-5.9250002 -1.125 -0.375
-5.9250002 -1.125 -0.22499999
-5.7750001 -1.125 -0.22499999
-5.7750001 -1.125 -0.075000003
-4.7249999 -4.7249999 -2.925
-4.7249999 -4.5749998 -2.925
-4.5749998 -4.7249999 -2.7750001
-4.4250002 -4.7249999 -2.7750001
-4.7249999 -4.5749998 -2.4749999
-4.2750001 -4.7249999 -2.625
-4.2750001 -4.5749998 -2.4749999
-4.5749998 -4.4250002 -2.4749999
-4.4250002 -4.2750001 -2.4749999
-4.125 -4.7249999 -2.4749999
-4.7249999 -3.9749999 -2.7750001
-4.7249999 -4.125 -2.625
-4.7249999 -3.9749999 -2.625
-4.5749998 -3.9749999 -2.625
-4.7249999 -4.125 -2.4749999
-4.4250002 -3.9749999 -2.4749999
-4.7249999 -3.825 -2.625
-4.7249999 -3.825 -2.4749999
-4.5749998 -3.825 -2.4749999
-4.7249999 -3.675 -2.4749999
-4.125 -4.125 -2.4749999
-4.5749998 -4.5749998 -2.325
-4.4250002 -4.7249999 -2.175
-4.2750001 -4.7249999 -2.175
-4.2750001 -4.5749998 -2.175
-4.5749998 -4.4250002 -2.325
-4.2750001 -4.2750001 -2.325
-4.2750001 -4.5749998 -2.0250001
-4.2750001 -4.2750001 -2.0250001
-3.9749999 -4.7249999 -2.175
-3.9749999 -4.4250002 -2.175
-4.125 -4.5749998 -2.0250001
-4.125 -4.5749998 -1.875
-3.825 -4.5749998 -2.0250001
-4.125 -4.4250002 -1.875
-4.7249999 -4.125 -2.325
-4.5749998 -4.125 -2.325
-4.2750001 -3.9749999 -2.325
-4.4250002 -4.125 -2.175
-4.5749998 -3.675 -2.325
-4.7249999 -3.675 -2.175
-4.4250002 -3.825 -2.325
-4.2750001 -3.825 -2.325
-4.2750001 -3.825 -2.175
-4.2750001 -3.9749999 -2.0250001
-4.2750001 -4.125 -1.875
-4.5749998 -3.675 -2.0250001
-4.2750001 -3.825 -1.875
-4.4250002 -3.675 -1.875
-3.9749999 -4.125 -2.325
-4.125 -3.9749999 -2.175
-3.675 -4.125 -2.175
-3.9749999 -3.9749999 -2.0250001
-3.9749999 -3.9749999 -1.875
-3.825 -4.125 -1.875
-4.125 -3.825 -2.0250001
-3.9749999 -3.825 -1.875
-3.9749999 -4.5749998 -1.725
-3.9749999 -4.5749998 -1.575
-3.675 -4.7249999 -1.725
-3.825 -4.5749998 -1.575
-3.675 -4.2750001 -1.725
-3.675 -4.2750001 -1.575
-3.825 -4.7249999 -1.425
-3.825 -4.5749998 -1.425
-3.675 -4.7249999 -1.275
-4.5749998 -3.675 -1.725
-4.4250002 -3.675 -1.575
-4.2750001 -3.675 -1.275
-4.125 -4.125 -1.725
-3.825 -3.9749999 -1.725
-3.675 -4.125 -1.575
-3.825 -3.9749999 -1.575
-3.675 -3.9749999 -1.575
-4.125 -3.825 -1.725
-3.9749999 -3.675 -1.725
-4.125 -3.825 -1.575
-4.125 -3.675 -1.575
-3.825 -3.825 -1.725
-3.825 -3.675 -1.575
-3.9749999 -3.9749999 -1.425
-3.9749999 -3.675 -1.425
-3.9749999 -3.825 -1.275
-3.675 -3.825 -1.425
-3.675 -3.675 -1.425
-3.675 -3.675 -1.275
-3.5250001 -4.2750001 -1.875
-3.5250001 -4.5749998 -1.725
-3.5250001 -4.5749998 -1.575
-3.375 -4.5749998 -1.425
-3.375 -4.7249999 -1.275
-3.5250001 -4.2750001 -1.425
-3.375 -4.4250002 -1.275
-3.2249999 -4.2750001 -1.425
-3.5250001 -4.125 -1.425
-3.5250001 -4.125 -1.275
-4.7249999 -3.2249999 -2.325
-4.4250002 -3.2249999 -2.175
-4.2750001 -3.375 -2.0250001
-4.7249999 -3.075 -2.0250001
-4.7249999 -3.2249999 -1.875
-4.7249999 -3.075 -1.875
-4.5749998 -3.075 -1.875
-4.2750001 -3.2249999 -2.0250001
-4.4250002 -3.075 -1.875
-3.9749999 -3.375 -1.875
-4.4250002 -3.375 -1.725
-4.2750001 -3.375 -1.575
-4.5749998 -3.2249999 -1.725
-4.5749998 -3.075 -1.725
-4.4250002 -3.2249999 -1.725
-4.2750001 -3.075 -1.725
-4.4250002 -3.075 -1.425
-4.2750001 -3.075 -1.275
-4.125 -3.375 -1.725
-4.125 -3.5250001 -1.575
-3.825 -3.5250001 -1.575
-4.125 -3.075 -1.575
-3.9749999 -3.5250001 -1.425
-4.125 -3.375 -1.275
-3.825 -3.5250001 -1.275
-4.125 -3.075 -1.425
-4.125 -3.2249999 -1.275
-3.9749999 -3.075 -1.275
-4.7249999 -2.7750001 -1.725
-4.5749998 -2.925 -1.575
-4.7249999 -2.7750001 -1.575
-4.4250002 -2.925 -1.575
-4.7249999 -2.4749999 -1.725
-4.5749998 -2.4749999 -1.725
-4.5749998 -2.4749999 -1.575
-4.5749998 -2.7750001 -1.275
-4.2750001 -2.925 -1.425
-4.4250002 -2.925 -1.275
-4.4250002 -2.4749999 -1.425
-4.4250002 -2.4749999 -1.275
-4.2750001 -2.4749999 -1.275
-3.5250001 -3.375 -1.275
-3.675 -4.5749998 -1.125
-3.675 -4.125 -1.125
-3.675 -3.9749999 -0.97500002
-3.825 -3.825 -1.125
-3.675 -3.675 -1.125
-3.675 -4.125 -0.82499999
-3.675 -3.675 -0.82499999
-3.675 -3.825 -0.67500001
-3.5250001 -4.7249999 -1.125
-3.2249999 -4.5749998 -1.125
-3.075 -4.5749998 -0.97500002
-3.5250001 -4.2750001 -0.97500002
-3.075 -4.4250002 -1.125
-3.5250001 -4.5749998 -0.82499999
-3.075 -4.7249999 -0.82499999
-3.375 -4.2750001 -0.82499999
-3.5250001 -4.2750001 -0.67500001
-3.2249999 -4.2750001 -0.82499999
-3.075 -4.2750001 -0.82499999
-3.2249999 -4.4250002 -0.67500001
-3.2249999 -4.2750001 -0.67500001
-2.925 -4.5749998 -0.67500001
-3.375 -4.125 -1.125
-3.5250001 -3.9749999 -1.125
-3.375 -3.9749999 -1.125
-3.375 -4.125 -0.97500002
-3.5250001 -3.825 -1.125
-3.5250001 -3.675 -1.125
-3.5250001 -3.675 -0.97500002
-3.2249999 -3.9749999 -0.67500001
-3.5250001 -3.675 -0.67500001
-3.375 -3.675 -0.67500001
-3.2249999 -3.825 -0.67500001
-3.375 -4.5749998 -0.52499998
-3.2249999 -4.5749998 -0.375
-3.375 -4.4250002 -0.375
-3.2249999 -4.7249999 -0.22499999
-3.2249999 -4.5749998 -0.075000003
-3.375 -4.4250002 -0.075000003
-3.075 -4.4250002 -0.22499999
-2.925 -4.7249999 -0.52499998
-2.625 -4.5749998 -0.375
-2.925 -4.2750001 -0.52499998
-2.925 -4.4250002 -0.22499999
-2.925 -4.2750001 -0.22499999
-2.925 -4.4250002 -0.075000003
-2.7750001 -4.4250002 -0.075000003
-3.5250001 -3.9749999 -0.375
-3.2249999 -3.9749999 -0.52499998
-3.075 -4.125 -0.375
-3.5250001 -3.825 -0.52499998
-3.375 -3.675 -0.375
-3.2249999 -3.825 -0.375
-3.2249999 -3.675 -0.375
-3.375 -3.9749999 -0.22499999
-3.375 -3.9749999 -0.075000003
-3.2249999 -3.9749999 -0.075000003
-3.375 -3.825 -0.22499999
-3.2249999 -3.675 -0.22499999
-3.075 -3.825 -0.075000003
-3.2249999 -3.675 -0.075000003
-2.925 -4.125 -0.075000003
-2.925 -3.9749999 -0.075000003
-4.2750001 -3.075 -1.125
-3.9749999 -3.5250001 -1.125
-4.125 -3.5250001 -0.97500002
-3.825 -3.375 -0.97500002
-4.125 -3.2249999 -1.125
-3.9749999 -3.2249999 -1.125
-4.125 -3.075 -0.97500002
-3.825 -3.075 -1.125
-3.9749999 -3.5250001 -0.67500001
-3.675 -3.375 -0.82499999
-3.9749999 -3.2249999 -0.82499999
-3.9749999 -3.075 -0.67500001
-3.675 -3.2249999 -0.82499999
-3.675 -3.075 -0.82499999
-3.675 -3.2249999 -0.67500001
-4.2750001 -2.925 -0.97500002
-4.2750001 -2.7750001 -0.97500002
-4.5749998 -2.4749999 -0.97500002
-4.7249999 -2.625 -0.67500001
-4.2750001 -2.625 -0.82499999
-4.4250002 -2.4749999 -0.82499999
-4.2750001 -2.4749999 -0.67500001
-4.125 -2.925 -1.125
-4.125 -2.625 -1.125
-3.9749999 -2.625 -0.97500002
-4.125 -2.4749999 -0.97500002
-4.125 -2.925 -0.82499999
-4.125 -2.925 -0.67500001
-3.9749999 -2.925 -0.67500001
-4.125 -2.7750001 -0.67500001
-3.825 -2.925 -0.82499999
-3.825 -2.7750001 -0.67500001
-3.825 -3.5250001 -0.375
-3.9749999 -3.075 -0.52499998
-3.825 -3.075 -0.52499998
-3.825 -3.2249999 -0.375
-3.675 -3.075 -0.22499999
-3.675 -3.075 -0.075000003
-4.4250002 -2.4749999 -0.52499998
-4.2750001 -2.4749999 -0.375
-4.5749998 -2.4749999 -0.22499999
-4.125 -2.7750001 -0.52499998
-3.9749999 -2.7750001 -0.375
-3.675 -2.925 -0.52499998
-4.125 -2.625 -0.375
-3.825 -2.4749999 -0.52499998
-3.9749999 -2.925 -0.22499999
-3.9749999 -2.7750001 -0.075000003
-3.825 -2.7750001 -0.22499999
-4.125 -2.4749999 -0.075000003
-3.675 -2.625 -0.22499999
-3.675 -2.4749999 -0.075000003
-3.5250001 -3.5250001 -0.97500002
-3.5250001 -3.375 -0.67500001
-3.375 -3.5250001 -0.52499998
-3.5250001 -3.375 -0.375
-3.5250001 -3.2249999 -0.52499998
-3.375 -3.075 -0.375
-3.375 -3.375 -0.075000003
-3.375 -3.2249999 -0.22499999
-2.925 -3.5250001 -0.22499999
-3.5250001 -2.925 -0.375
-4.7249999 -2.325 -1.275
-4.7249999 -2.175 -1.275
-4.7249999 -2.325 -1.125
-4.7249999 -2.175 -1.125
-4.5749998 -2.175 -1.125
-4.4250002 -2.175 -0.82499999
-4.2750001 -2.175 -0.67500001
-4.7249999 -2.0250001 -0.67500001
-4.7249999 -1.725 -0.67500001
-4.5749998 -2.325 -0.52499998
-4.7249999 -2.175 -0.52499998
-4.5749998 -2.325 -0.375
-4.2750001 -2.175 -0.375
-4.5749998 -2.0250001 -0.375
-4.7249999 -1.875 -0.375
-4.4250002 -2.325 -0.22499999
-4.4250002 -2.325 -0.075000003
-4.5749998 -2.0250001 -0.22499999
-4.5749998 -2.0250001 -0.075000003
-4.125 -2.175 -0.375
-4.5749998 -1.725 -0.375
-4.7249999 -1.575 -0.075000003
-4.4250002 -1.725 -0.075000003
13.725 -67.275002 -22.875
12.975 -67.724998 -21.075001
18.375 -68.175003 -21.975
12.825 -58.575001 -24.225
12.675 -67.125 -19.424999
12.825 -63.525002 -21.375
13.575 -63.525002 -19.875
17.775 -65.175003 -22.875
15.225 -63.825001 -23.325001
15.675 -66.675003 -20.775
13.125 -60.375 -22.725
12.975 -59.625 -23.625
12.975 -58.875 -23.625
12.975 -59.025002 -23.325001
13.875 -59.174999 -21.525
13.725 -59.474998 -20.475
18.075001 -61.575001 -21.975
15.225 -57.974998 -19.424999
21.075001 -68.625 -24.075001
21.225 -69.375 -23.775
21.075001 -69.074997 -23.775
21.075001 -69.375 -23.174999
20.924999 -68.025002 -23.025
13.575 -51.825001 -24.075001
14.325 -51.674999 -24.075001
14.925 -51.674999 -24.075001
15.675 -51.674999 -24.075001
12.975 -52.875 -21.225
12.825 -53.924999 -20.025
13.875 -53.025002 -19.424999
13.425 -51.674999 -22.875
14.325 -51.525002 -23.174999
12.825 -52.575001 -22.424999
13.875 -51.674999 -22.275
13.425 -52.575001 -21.825001
12.975 -52.724998 -21.225
13.125 -52.424999 -21.225
14.025 -51.825001 -20.775
14.175 -51.674999 -20.924999
14.175 -51.525002 -21.075001
13.875 -51.674999 -19.875
15.225 -51.224998 -23.625
14.475 -51.674999 -21.525
15.525 -51.525002 -21.075001
15.075 -51.674999 -20.174999
16.424999 -51.674999 -20.325001
16.875 -51.525002 -21.225
13.125 -71.175003 -17.025
12.975 -68.025002 -18.975
12.975 -68.775002 -17.924999
12.825 -68.175003 -14.475
18.525 -67.724998 -16.424999
18.525 -69.074997 -15.375
12.825 -67.724998 -12.525
12.975 -70.875 -10.425
15.825 -68.025002 -14.175
14.025 -66.224998 -18.525
13.425 -65.775002 -18.825001
15.375 -65.025002 -16.875
17.924999 -66.375 -16.575001
14.025 -60.825001 -18.674999
12.975 -61.875 -17.174999
13.125 -60.224998 -17.325001
12.975 -60.224998 -17.174999
13.125 -59.924999 -18.825001
12.825 -59.625 -18.075001
13.425 -59.924999 -17.924999
13.425 -58.275002 -17.924999
13.125 -60.674999 -16.275
17.775 -59.025002 -15.825
14.175 -65.324997 -12.525
13.725 -63.525002 -13.275
13.425 -66.375 -11.925
14.025 -66.525002 -11.625
12.975 -63.525002 -10.425
15.375 -65.625 -10.425
17.924999 -67.125 -10.125
18.225 -63.974998 -10.125
12.825 -60.224998 -11.925
13.125 -60.525002 -9.8249998
13.425 -58.575001 -11.925
15.375 -58.724998 -13.725
13.125 -70.875 -9.5249996
14.175 -69.974998 -5.4749999
12.825 -68.025002 -5.625
15.675 -67.724998 -7.5749998
18.525 -69.375 -8.7749996
13.125 -70.425003 -2.175
18.674999 -69.224998 -3.2249999
15.675 -67.275002 -0.82499999
18.525 -68.925003 -2.0250001
13.575 -66.375 -5.0250001
13.725 -63.224998 -6.5250001
12.825 -60.825001 -7.7249999
12.825 -60.525002 -5.7750001
14.025 -59.775002 -6.375
13.425 -58.575001 -5.7750001
15.375 -58.875 -8.0249996
14.025 -66.224998 -4.7249999
13.125 -64.724998 -3.5250001
12.825 -64.425003 -0.375
15.525 -65.625 -3.825
18.075001 -67.125 -3.5250001
13.125 -60.075001 -3.375
13.725 -62.325001 -0.075000003
18.075001 -60.974998 -4.2750001
15.375 -58.424999 -2.175
13.575 -55.275002 -18.825001
13.575 -53.174999 -18.525
12.825 -53.625 -16.875
13.125 -53.625 -17.025
13.875 -52.875 -17.924999
13.125 -53.924999 -15.675
13.425 -53.775002 -16.125
12.975 -54.075001 -15.525
14.175 -51.525002 -18.375
13.425 -52.125 -17.325001
13.575 -51.674999 -16.575001
13.875 -51.674999 -16.575001
13.125 -52.724998 -15.525
13.725 -51.674999 -15.075
13.875 -51.674999 -15.075
14.175 -51.525002 -15.525
14.775 -51.525002 -18.975
15.075 -51.375 -18.525
15.525 -51.525002 -18.375
14.475 -51.525002 -17.924999
14.775 -51.375 -17.775
15.525 -51.525002 -15.525
16.725 -51.525002 -15.525
15.825 -51.525002 -14.475
17.174999 -51.525002 -14.625
12.825 -57.375 -14.175
13.875 -56.474998 -12.525
13.575 -55.275002 -12.975
12.825 -54.224998 -11.325
17.625 -56.174999 -10.275
13.275 -51.825001 -14.175
14.175 -51.525002 -12.825
14.175 -51.375 -12.525
14.175 -51.525002 -12.225
13.425 -52.424999 -11.775
13.425 -51.674999 -11.175
13.125 -52.575001 -9.9750004
14.175 -51.375 -9.9750004
15.075 -51.974998 -13.425
14.625 -51.525002 -14.325
14.475 -51.375 -13.125
15.375 -51.525002 -12.825
15.375 -51.375 -12.675
15.525 -51.375 -9.9750004
16.725 -51.375 -9.9750004
13.575 -54.974998 -7.125
12.825 -54.375 -5.7750001
17.325001 -53.174999 -5.3249998
14.025 -51.525002 -8.625
12.975 -51.974998 -8.3249998
14.175 -51.525002 -7.4250002
13.875 -52.275002 -7.125
13.425 -52.424999 -6.2249999
13.425 -51.525002 -5.9250002
15.375 -51.525002 -8.7749996
16.725 -51.525002 -8.9250002
15.075 -51.974998 -8.3249998
14.775 -51.224998 -7.2750001
15.525 -51.525002 -7.4250002
16.125 -51.224998 -7.4250002
18.075001 -51.674999 -9.0749998
12.975 -54.674999 -2.175
13.725 -54.375 -1.425
12.825 -54.224998 -0.22499999
13.875 -54.674999 -1.125
13.125 -52.275002 -4.2750001
14.325 -51.375 -4.4250002
13.725 -51.375 -2.7750001
14.325 -51.375 -1.875
14.325 -51.224998 -2.0250001
13.125 -51.674999 -0.22499999
13.425 -51.974998 -0.67500001
13.425 -51.525002 -0.52499998
14.325 -51.224998 -0.22499999
15.525 -51.375 -4.4250002
15.075 -51.674999 -3.2249999
14.925 -51.375 -2.925
16.275 -51.375 -3.075
16.875 -51.375 -4.4250002
17.625 -51.375 -3.2249999
18.975 -51.375 -3.5250001
15.525 -51.224998 -2.0250001
15.675 -51.375 -1.875
15.675 -51.224998 -0.22499999
16.875 -51.224998 -2.175
17.174999 -50.625 -0.67500001
17.025 -51.224998 -0.22499999
0.075000003 -15.075 -5.7750001
0.075000003 -14.775 -5.7750001
0.375 -14.925 -5.9250002
0.22499999 -14.625 -5.9250002
0.075000003 -14.475 -5.9250002
0.52499998 -14.625 -5.9250002
0.67500001 -14.925 -5.9250002
0.97500002 -14.925 -5.9250002
0.82499999 -14.475 -5.9250002
0.82499999 -14.475 -5.7750001
1.125 -14.475 -5.9250002
1.875 -15.075 -5.7750001
2.175 -15.225 -5.625
1.275 -14.925 -5.9250002
1.425 -14.775 -5.9250002
1.575 -14.925 -5.7750001
1.425 -14.475 -5.9250002
1.725 -14.625 -5.9250002
1.275 -14.925 -5.625
1.275 -14.475 -5.625
2.175 -14.775 -5.7750001
1.875 -14.625 -5.9250002
2.4749999 -15.675 -5.4749999
2.925 -15.675 -5.4749999
2.4749999 -15.075 -5.7750001
2.625 -15.225 -5.625
2.4749999 -15.075 -5.625
3.375 -14.625 -4.875
0.075000003 -14.175 -5.9250002
0.075000003 -14.325 -5.7750001
0.375 -14.325 -5.9250002
0.375 -14.175 -5.9250002
0.52499998 -14.325 -5.7750001
0.67500001 -14.325 -5.9250002
0.67500001 -14.175 -5.9250002
0.97500002 -14.325 -5.9250002
0.97500002 -14.025 -5.625
0.22499999 -13.575 -5.7750001
0.52499998 -13.725 -5.7750001
0.22499999 -13.425 -5.7750001
0.22499999 -13.275 -5.7750001
0.52499998 -13.275 -5.7750001
0.22499999 -13.425 -5.4749999
1.125 -13.275 -5.625
1.425 -13.275 -5.625
1.725 -13.275 -5.625
2.175 -13.575 -5.4749999
2.0250001 -13.425 -5.625
1.875 -13.425 -5.4749999
2.175 -13.425 -5.3249998
0.22499999 -12.975 -5.7750001
0.52499998 -13.125 -5.7750001
0.22499999 -12.975 -5.625
0.52499998 -13.125 -5.625
0.375 -12.975 -5.625
0.52499998 -13.125 -5.4749999
0.22499999 -12.825 -5.625
0.075000003 -12.675 -5.625
0.52499998 -12.825 -5.625
0.67500001 -13.125 -5.7750001
0.82499999 -13.125 -5.7750001
0.97500002 -13.125 -5.9250002
1.125 -13.125 -5.7750001
0.82499999 -13.125 -5.625
0.82499999 -12.975 -5.4749999
1.125 -13.125 -5.625
0.67500001 -12.825 -5.625
0.82499999 -12.825 -5.4749999
0.97500002 -12.825 -5.625
1.125 -12.825 -5.625
0.97500002 -12.675 -5.4749999
1.125 -12.675 -5.4749999
0.075000003 -12.375 -5.4749999
0.375 -12.525 -5.625
0.375 -12.525 -5.4749999
0.075000003 -12.225 -5.4749999
0.375 -12.225 -5.4749999
0.52499998 -12.225 -5.4749999
0.67500001 -12.525 -5.625
0.82499999 -12.525 -5.625
0.67500001 -12.525 -5.4749999
1.125 -12.525 -5.625
0.22499999 -13.125 -5.3249998
0.52499998 -12.975 -5.3249998
0.82499999 -12.675 -5.3249998
0.22499999 -12.375 -5.3249998
0.075000003 -12.525 -5.1750002
0.22499999 -12.525 -5.1750002
0.375 -12.525 -5.3249998
0.52499998 -12.525 -5.3249998
0.52499998 -12.375 -5.1750002
0.075000003 -12.225 -5.3249998
0.075000003 -12.075 -5.3249998
0.22499999 -12.075 -5.3249998
0.375 -12.075 -5.3249998
0.52499998 -12.075 -5.0250001
0.67500001 -12.375 -5.3249998
1.125 -12.525 -5.3249998
0.97500002 -12.375 -5.3249998
0.82499999 -12.075 -5.3249998
0.82499999 -12.225 -5.1750002
0.97500002 -12.225 -5.3249998
1.125 -12.225 -5.3249998
1.125 -12.225 -5.1750002
1.275 -12.975 -5.9250002
1.575 -12.975 -5.9250002
1.425 -12.975 -5.4749999
1.575 -12.975 -5.625
1.725 -12.975 -5.625
1.275 -12.825 -5.625
1.425 -12.825 -5.625
1.275 -12.675 -5.625
1.425 -12.675 -5.625
1.275 -12.825 -5.4749999
1.425 -12.675 -5.4749999
1.725 -12.825 -5.625
1.725 -12.825 -5.4749999
1.725 -12.675 -5.4749999
1.875 -12.975 -5.9250002
2.175 -12.975 -5.7750001
1.875 -12.975 -5.625
2.325 -13.125 -5.4749999
2.175 -12.975 -5.4749999
2.0250001 -12.825 -5.4749999
2.0250001 -12.675 -5.4749999
2.325 -12.825 -5.4749999
1.425 -12.525 -5.625
1.575 -12.525 -5.625
1.875 -12.525 -5.4749999
1.575 -12.975 -5.3249998
1.875 -13.125 -5.3249998
2.0250001 -12.675 -5.1750002
2.325 -12.825 -5.1750002
2.175 -12.675 -5.0250001
2.325 -12.675 -5.0250001
1.425 -12.525 -5.3249998
1.275 -12.375 -5.3249998
1.425 -12.375 -5.1750002
1.725 -12.525 -5.3249998
1.275 -12.225 -5.3249998
1.425 -12.225 -5.3249998
1.275 -12.075 -5.1750002
1.425 -12.075 -5.1750002
1.575 -12.225 -5.3249998
1.575 -12.075 -5.1750002
1.725 -12.075 -5.1750002
2.175 -12.375 -5.3249998
1.875 -12.225 -5.3249998
1.875 -12.525 -5.0250001
2.0250001 -12.375 -5.0250001
2.325 -12.525 -4.875
2.175 -12.075 -4.875
2.325 -12.075 -4.875
2.7750001 -13.875 -5.4749999
2.4749999 -13.575 -5.4749999
2.7750001 -13.875 -5.1750002
2.7750001 -14.175 -5.0250001
3.2249999 -14.175 -5.1750002
3.075 -14.175 -5.0250001
2.4749999 -13.725 -5.3249998
2.4749999 -13.725 -5.1750002
2.925 -13.275 -5.3249998
2.7750001 -13.275 -5.0250001
3.375 -13.575 -5.1750002
3.075 -13.425 -5.3249998
3.2249999 -13.425 -5.1750002
3.5250001 -13.725 -5.0250001
3.075 -13.425 -4.875
3.675 -13.875 -5.0250001
4.2750001 -14.025 -4.875
3.675 -13.575 -5.1750002
3.9749999 -13.575 -5.0250001
4.5749998 -13.725 -4.875
2.7750001 -12.975 -5.4749999
2.4749999 -12.825 -5.4749999
2.625 -13.125 -5.3249998
2.625 -12.675 -5.3249998
2.925 -12.675 -5.3249998
2.625 -12.975 -4.875
3.375 -12.975 -5.3249998
3.2249999 -12.675 -5.1750002
2.4749999 -12.375 -5.3249998
2.925 -12.525 -5.3249998
2.7750001 -12.375 -5.1750002
2.4749999 -12.075 -4.875
2.7750001 -12.225 -4.875
3.2249999 -12.375 -5.1750002
3.675 -12.825 -5.1750002
4.125 -13.125 -5.0250001
3.9749999 -12.825 -5.0250001
3.675 -12.225 -4.875
0.075000003 -11.775 -5.3249998
0.52499998 -11.925 -5.3249998
0.375 -11.925 -5.1750002
0.52499998 -11.775 -5.1750002
0.22499999 -11.625 -5.1750002
0.075000003 -11.925 -5.0250001
0.075000003 -11.775 -5.0250001
0.22499999 -11.925 -4.875
0.52499998 -11.775 -5.0250001
0.52499998 -11.775 -4.875
0.075000003 -11.625 -5.0250001
0.22499999 -11.625 -5.0250001
0.22499999 -11.475 -5.0250001
0.375 -11.625 -5.0250001
0.52499998 -11.625 -5.0250001
0.52499998 -11.475 -5.0250001
0.375 -11.625 -4.875
0.67500001 -11.925 -5.1750002
0.82499999 -11.775 -5.1750002
1.125 -11.925 -5.1750002
1.125 -11.775 -5.1750002
0.67500001 -11.775 -5.0250001
0.82499999 -11.775 -5.0250001
0.97500002 -11.775 -5.0250001
1.125 -11.775 -5.0250001
0.82499999 -11.625 -5.0250001
0.67500001 -11.475 -5.0250001
0.82499999 -11.625 -4.875
0.97500002 -11.625 -5.0250001
1.125 -11.625 -5.0250001
0.97500002 -11.625 -4.875
0.97500002 -11.325 -5.0250001
1.575 -11.775 -5.4749999
1.875 -11.775 -5.4749999
1.425 -11.925 -5.1750002
1.575 -11.775 -5.1750002
1.425 -11.925 -5.0250001
1.275 -11.775 -5.0250001
1.425 -11.775 -4.875
1.575 -11.925 -5.0250001
1.725 -11.925 -5.0250001
1.575 -11.775 -5.0250001
1.725 -11.775 -5.0250001
1.575 -11.925 -4.875
1.275 -11.625 -5.0250001
1.275 -11.625 -4.875
1.275 -11.475 -4.875
1.575 -11.475 -4.875
1.725 -11.475 -4.875
1.875 -11.925 -5.0250001
2.0250001 -11.925 -5.0250001
1.875 -11.775 -5.0250001
1.875 -11.925 -4.875
2.0250001 -11.925 -4.875
2.175 -11.925 -5.0250001
2.175 -11.775 -4.875
2.325 -11.775 -4.875
1.875 -11.475 -4.875
2.0250001 -11.475 -4.875
2.175 -11.625 -4.875
2.325 -11.625 -4.875
1.275 -11.325 -5.0250001
1.425 -11.325 -5.0250001
1.425 -11.325 -4.875
2.4749999 -11.925 -4.875
2.4749999 -11.625 -4.875
3.075 -11.925 -5.0250001
3.075 -14.775 -4.7249999
3.675 -15.525 -4.4250002
4.7249999 -14.625 -4.4250002
3.675 -14.775 -4.125
4.125 -14.475 -3.825
5.4749999 -14.625 -3.075
2.175 -12.075 -4.5749998
3.5250001 -14.025 -4.7249999
3.075 -13.575 -4.7249999
3.2249999 -13.275 -4.2750001
4.125 -14.325 -4.7249999
3.9749999 -14.175 -4.7249999
3.675 -13.425 -4.2750001
3.675 -14.025 -3.9749999
3.9749999 -13.425 -3.825
4.7249999 -13.425 -3.9749999
4.2750001 -13.425 -3.825
3.375 -12.825 -4.4250002
3.5250001 -12.825 -4.2750001
2.4749999 -12.375 -4.5749998
2.925 -12.525 -4.5749998
2.4749999 -12.225 -4.7249999
2.625 -12.225 -4.7249999
2.7750001 -12.225 -4.7249999
2.7750001 -12.075 -4.7249999
2.7750001 -12.225 -4.5749998
2.625 -12.075 -4.4250002
2.925 -12.225 -4.2750001
3.075 -12.375 -4.5749998
3.375 -12.375 -4.7249999
3.5250001 -12.375 -4.5749998
3.075 -12.225 -4.7249999
3.375 -12.075 -4.7249999
3.375 -12.525 -4.4250002
3.375 -12.525 -4.125
3.375 -12.075 -3.9749999
3.5250001 -12.225 -3.825
3.375 -12.075 -3.675
3.825 -12.675 -4.4250002
3.675 -12.225 -4.5749998
3.675 -12.975 -3.9749999
3.9749999 -13.125 -4.125
4.4250002 -13.125 -4.125
3.825 -12.225 -3.675
4.4250002 -14.325 -3.375
4.5749998 -14.175 -3.5250001
4.7249999 -13.425 -3.075
4.2750001 -12.675 -3.375
4.2750001 -12.975 -3.075
3.675 -12.225 -3.375
4.125 -12.075 -3.2249999
4.4250002 -12.225 -3.5250001
4.7249999 -12.375 -3.2249999
4.2750001 -12.825 -2.625
4.4250002 -12.675 -2.4749999
3.825 -12.075 -2.925
4.125 -12.225 -2.7750001
4.4250002 -12.525 -2.925
4.4250002 -12.525 -2.625
0.22499999 -11.475 -4.5749998
0.22499999 -11.475 -4.4250002
0.82499999 -11.625 -4.7249999
0.97500002 -11.625 -4.7249999
0.97500002 -11.475 -4.7249999
0.075000003 -11.325 -4.7249999
0.22499999 -11.175 -4.7249999
0.22499999 -11.325 -4.5749998
0.075000003 -11.175 -4.5749998
0.375 -11.325 -4.7249999
0.375 -11.175 -4.7249999
0.52499998 -11.175 -4.7249999
0.52499998 -11.325 -4.5749998
0.375 -11.175 -4.5749998
0.22499999 -11.025 -4.7249999
0.52499998 -11.025 -4.7249999
0.375 -11.025 -4.5749998
0.52499998 -11.025 -4.5749998
0.22499999 -11.325 -4.4250002
0.075000003 -11.175 -4.4250002
0.22499999 -11.175 -4.4250002
0.22499999 -11.175 -4.2750001
0.52499998 -11.325 -4.4250002
0.375 -11.175 -4.4250002
0.52499998 -11.175 -4.4250002
0.075000003 -10.875 -4.4250002
0.22499999 -10.875 -4.4250002
0.22499999 -11.025 -4.2750001
0.22499999 -10.875 -4.2750001
0.375 -10.875 -4.4250002
0.52499998 -10.875 -4.4250002
0.375 -11.025 -4.2750001
0.375 -10.875 -4.2750001
0.52499998 -10.875 -4.2750001
0.67500001 -11.325 -4.7249999
0.82499999 -11.325 -4.7249999
0.82499999 -11.175 -4.5749998
0.97500002 -11.325 -4.5749998
0.97500002 -11.175 -4.5749998
0.82499999 -11.025 -4.5749998
0.97500002 -11.025 -4.5749998
0.67500001 -11.175 -4.4250002
0.97500002 -11.175 -4.4250002
1.125 -11.175 -4.4250002
0.82499999 -11.025 -4.4250002
0.67500001 -11.025 -4.2750001
0.67500001 -10.875 -4.2750001
0.82499999 -10.875 -4.2750001
0.97500002 -11.025 -4.4250002
1.125 -10.875 -4.4250002
0.97500002 -10.875 -4.2750001
0.22499999 -10.875 -4.125
0.22499999 -10.875 -3.9749999
0.52499998 -10.875 -4.125
0.52499998 -10.875 -3.9749999
1.425 -11.625 -4.7249999
1.275 -11.475 -4.7249999
1.575 -11.475 -4.7249999
1.575 -11.475 -4.5749998
1.575 -11.475 -4.4250002
1.875 -11.775 -4.7249999
1.875 -11.775 -4.5749998
1.875 -11.475 -4.7249999
1.875 -11.625 -4.5749998
2.175 -11.625 -4.5749998
2.325 -11.925 -4.4250002
2.325 -11.625 -4.4250002
1.275 -11.325 -4.5749998
1.275 -11.175 -4.5749998
1.575 -11.175 -4.5749998
1.725 -11.175 -4.5749998
1.275 -11.025 -4.5749998
1.575 -11.025 -4.5749998
1.275 -11.175 -4.4250002
1.425 -11.175 -4.4250002
1.275 -11.025 -4.4250002
1.425 -11.025 -4.4250002
1.425 -11.025 -4.2750001
1.275 -10.875 -4.2750001
1.575 -11.025 -4.4250002
1.725 -11.025 -4.4250002
1.725 -11.025 -4.2750001
2.0250001 -11.175 -4.5749998
2.325 -11.175 -4.5749998
2.0250001 -11.025 -4.5749998
2.325 -11.025 -4.5749998
1.875 -11.325 -4.2750001
1.875 -11.175 -4.2750001
2.325 -11.325 -4.2750001
2.325 -11.175 -4.2750001
1.875 -11.025 -4.4250002
2.0250001 -11.025 -4.4250002
2.175 -11.475 -4.125
1.425 -10.875 -4.125
1.575 -11.025 -4.125
1.725 -11.025 -4.125
1.575 -10.875 -4.125
1.725 -10.875 -4.125
1.575 -10.875 -3.9749999
1.875 -11.175 -4.125
2.0250001 -11.175 -4.125
2.0250001 -11.175 -3.9749999
2.325 -11.325 -4.125
2.175 -11.175 -4.125
2.325 -11.175 -3.9749999
2.0250001 -11.025 -3.9749999
2.325 -10.875 -3.9749999
2.175 -10.875 -3.675
0.075000003 -10.725 -4.2750001
0.22499999 -10.725 -4.2750001
0.375 -10.725 -4.2750001
0.82499999 -10.575 -4.2750001
1.125 -10.725 -4.2750001
1.125 -10.575 -4.2750001
0.22499999 -10.575 -4.125
0.22499999 -10.725 -3.9749999
0.075000003 -10.575 -3.9749999
0.22499999 -10.575 -3.9749999
0.52499998 -10.575 -4.125
0.375 -10.725 -3.9749999
0.375 -10.575 -3.9749999
0.22499999 -10.425 -4.125
0.22499999 -10.275 -3.9749999
0.375 -10.275 -3.9749999
0.52499998 -10.275 -3.9749999
0.22499999 -10.725 -3.825
0.22499999 -10.575 -3.675
0.52499998 -10.575 -3.825
0.375 -10.575 -3.675
0.075000003 -10.425 -3.825
0.22499999 -10.425 -3.825
0.22499999 -10.275 -3.675
0.52499998 -10.425 -3.825
0.375 -10.425 -3.675
0.52499998 -10.425 -3.675
0.52499998 -10.275 -3.675
0.67500001 -10.725 -4.125
0.82499999 -10.725 -4.125
0.67500001 -10.575 -4.125
0.67500001 -10.725 -3.9749999
0.67500001 -10.575 -3.9749999
0.82499999 -10.575 -3.9749999
0.97500002 -10.725 -4.125
1.125 -10.725 -4.125
0.97500002 -10.725 -3.9749999
1.125 -10.575 -3.9749999
0.82499999 -10.425 -3.9749999
0.67500001 -10.575 -3.675
0.97500002 -10.575 -3.675
1.125 -10.575 -3.675
0.82499999 -10.425 -3.825
0.67500001 -10.425 -3.675
0.82499999 -10.425 -3.675
1.125 -10.425 -3.825
0.97500002 -10.275 -3.825
1.125 -10.275 -3.825
0.97500002 -10.425 -3.675
1.125 -10.425 -3.675
1.125 -10.275 -3.675
0.075000003 -10.125 -3.675
1.725 -10.575 -4.7249999
1.275 -10.725 -4.2750001
1.575 -10.575 -4.2750001
1.875 -10.725 -4.2750001
2.175 -10.725 -4.2750001
1.275 -10.725 -4.125
1.425 -10.725 -4.125
1.275 -10.725 -3.9749999
1.425 -10.575 -3.9749999
1.725 -10.725 -4.125
1.725 -10.575 -3.9749999
1.425 -10.575 -3.675
1.575 -10.575 -3.675
1.725 -10.575 -3.675
1.425 -10.275 -3.675
1.575 -10.425 -3.825
1.575 -10.425 -3.675
1.575 -10.275 -3.675
1.725 -10.275 -3.675
1.875 -10.725 -4.125
1.875 -10.575 -3.9749999
2.175 -10.725 -4.125
2.175 -10.575 -3.9749999
2.175 -10.425 -3.9749999
1.875 -10.575 -3.825
2.175 -10.725 -3.675
1.875 -10.425 -3.675
2.0250001 -10.425 -3.675
1.875 -10.275 -3.675
2.325 -10.425 -3.675
2.175 -10.275 -3.675
2.175 -10.875 -3.5250001
2.325 -10.875 -3.5250001
2.325 -10.875 -3.375
0.22499999 -10.575 -3.5250001
0.075000003 -10.425 -3.5250001
0.22499999 -10.425 -3.5250001
0.075000003 -10.275 -3.5250001
0.075000003 -10.425 -3.375
0.22499999 -10.425 -3.375
0.375 -10.425 -3.5250001
0.52499998 -10.425 -3.5250001
0.375 -10.275 -3.5250001
0.375 -10.275 -3.375
0.52499998 -10.275 -3.375
0.22499999 -10.275 -3.2249999
0.22499999 -10.275 -3.075
0.67500001 -10.275 -3.5250001
0.82499999 -10.275 -3.5250001
0.67500001 -10.275 -3.375
0.82499999 -10.275 -3.375
0.97500002 -10.275 -3.5250001
1.125 -10.275 -3.5250001
0.97500002 -10.275 -3.375
1.125 -10.275 -3.375
0.075000003 -10.125 -3.375
0.22499999 -10.125 -3.375
0.375 -10.125 -3.375
0.52499998 -10.125 -3.375
0.075000003 -10.125 -3.2249999
0.075000003 -9.9750004 -3.2249999
0.22499999 -9.9750004 -3.2249999
0.075000003 -9.9750004 -3.075
0.375 -10.125 -3.2249999
0.52499998 -10.125 -3.2249999
0.375 -9.9750004 -3.2249999
0.52499998 -9.9750004 -3.2249999
0.375 -10.125 -3.075
0.375 -9.9750004 -3.075
0.22499999 -9.6750002 -3.075
0.82499999 -10.125 -3.375
0.82499999 -9.9750004 -3.375
0.67500001 -10.125 -3.2249999
0.82499999 -10.125 -3.2249999
0.67500001 -9.9750004 -3.2249999
0.82499999 -9.9750004 -3.2249999
0.67500001 -10.125 -3.075
0.67500001 -9.9750004 -3.075
0.82499999 -9.9750004 -3.075
0.97500002 -10.125 -3.2249999
1.125 -10.125 -3.2249999
0.97500002 -9.9750004 -3.2249999
0.97500002 -10.125 -3.075
0.97500002 -9.9750004 -3.075
1.125 -9.9750004 -3.075
0.22499999 -10.125 -2.925
0.075000003 -9.9750004 -2.925
0.22499999 -9.9750004 -2.925
0.075000003 -9.9750004 -2.7750001
0.22499999 -9.9750004 -2.7750001
0.375 -10.125 -2.925
0.52499998 -9.9750004 -2.925
0.375 -9.9750004 -2.7750001
0.22499999 -9.6750002 -2.925
0.075000003 -9.8249998 -2.7750001
0.375 -9.8249998 -2.925
0.52499998 -9.8249998 -2.925
0.375 -9.8249998 -2.7750001
0.52499998 -9.8249998 -2.7750001
0.22499999 -10.125 -2.625
0.075000003 -9.9750004 -2.625
0.22499999 -9.9750004 -2.625
0.075000003 -9.9750004 -2.4749999
0.22499999 -9.9750004 -2.4749999
0.52499998 -10.125 -2.625
0.375 -9.9750004 -2.625
0.22499999 -9.6750002 -2.625
0.22499999 -9.8249998 -2.4749999
0.375 -9.8249998 -2.625
0.52499998 -9.8249998 -2.625
0.375 -9.8249998 -2.4749999
0.52499998 -9.8249998 -2.4749999
0.67500001 -9.9750004 -2.925
0.82499999 -9.9750004 -2.925
0.67500001 -9.9750004 -2.7750001
0.97500002 -9.9750004 -2.925
1.125 -9.9750004 -2.925
0.97500002 -9.9750004 -2.7750001
0.82499999 -9.8249998 -2.925
0.67500001 -9.8249998 -2.7750001
0.82499999 -9.8249998 -2.7750001
1.125 -9.8249998 -2.925
1.125 -9.8249998 -2.7750001
0.82499999 -10.125 -2.625
0.97500002 -10.125 -2.625
0.67500001 -9.8249998 -2.625
0.82499999 -9.8249998 -2.625
0.82499999 -9.6750002 -2.625
0.67500001 -9.8249998 -2.4749999
0.82499999 -9.6750002 -2.4749999
1.125 -9.8249998 -2.625
1.125 -9.6750002 -2.625
0.97500002 -9.8249998 -2.4749999
1.125 -9.6750002 -2.4749999
1.725 -10.575 -3.5250001
1.275 -10.425 -3.5250001
1.425 -10.425 -3.5250001
1.275 -10.275 -3.5250001
1.425 -10.275 -3.5250001
1.425 -10.425 -3.375
1.575 -10.275 -3.5250001
1.725 -10.275 -3.5250001
1.575 -10.425 -3.375
1.725 -10.425 -3.375
1.725 -10.275 -3.375
1.275 -10.275 -3.2249999
1.725 -10.275 -3.075
1.875 -10.725 -3.5250001
1.875 -10.575 -3.5250001
2.0250001 -10.575 -3.5250001
2.0250001 -10.725 -3.375
2.325 -10.725 -3.5250001
2.175 -10.725 -3.375
1.875 -10.275 -3.5250001
2.0250001 -10.275 -3.5250001
1.875 -10.425 -3.375
2.325 -10.425 -3.5250001
2.175 -10.275 -3.5250001
2.325 -10.275 -3.5250001
2.325 -10.575 -3.075
1.875 -10.425 -3.2249999
2.0250001 -10.425 -3.075
2.0250001 -10.275 -3.075
2.175 -10.425 -3.2249999
2.325 -10.425 -3.075
2.325 -10.275 -3.075
1.425 -10.125 -3.5250001
1.725 -10.125 -3.5250001
1.575 -10.125 -3.375
1.725 -10.125 -3.375
1.425 -10.125 -3.2249999
1.275 -9.9750004 -3.2249999
1.275 -10.125 -3.075
1.425 -10.125 -3.075
1.275 -9.9750004 -3.075
1.725 -10.125 -3.2249999
1.575 -9.9750004 -3.2249999
1.575 -9.9750004 -3.075
2.0250001 -10.125 -3.5250001
2.0250001 -10.125 -3.375
1.875 -9.9750004 -3.075
1.425 -10.275 -2.925
2.0250001 -10.275 -2.925
2.0250001 -10.275 -2.7750001
2.325 -10.425 -2.925
2.325 -10.275 -2.925
2.325 -10.425 -2.7750001
1.275 -10.125 -2.925
1.275 -9.9750004 -2.7750001
1.725 -10.125 -2.925
1.575 -10.125 -2.7750001
1.725 -10.125 -2.7750001
1.275 -9.8249998 -2.7750001
1.425 -9.8249998 -2.7750001
1.575 -9.8249998 -2.7750001
1.575 -9.6750002 -2.7750001
1.275 -10.125 -2.625
1.425 -9.9750004 -2.4749999
1.575 -10.125 -2.625
1.725 -10.125 -2.625
1.725 -9.9750004 -2.4749999
1.275 -9.6750002 -2.625
1.275 -9.8249998 -2.4749999
1.425 -9.8249998 -2.4749999
1.275 -9.6750002 -2.4749999
1.425 -9.6750002 -2.4749999
1.575 -9.6750002 -2.625
1.725 -9.6750002 -2.625
1.725 -9.8249998 -2.4749999
1.575 -9.6750002 -2.4749999
1.725 -9.6750002 -2.4749999
2.0250001 -9.9750004 -2.925
2.0250001 -9.8249998 -2.925
1.875 -9.8249998 -2.7750001
2.175 -9.8249998 -2.7750001
2.0250001 -10.125 -2.625
2.0250001 -9.9750004 -2.625
2.0250001 -10.125 -2.4749999
2.175 -10.125 -2.4749999
2.325 -9.9750004 -2.4749999
2.0250001 -9.6750002 -2.625
1.875 -9.8249998 -2.4749999
2.0250001 -9.6750002 -2.4749999
2.175 -9.8249998 -2.625
2.325 -9.6750002 -2.625
2.175 -9.6750002 -2.4749999
2.325 -9.6750002 -2.4749999
2.925 -11.775 -4.7249999
2.625 -11.625 -4.7249999
2.925 -11.475 -4.5749998
2.4749999 -11.925 -4.2750001
3.2249999 -11.775 -4.7249999
3.2249999 -11.475 -4.5749998
3.5250001 -11.625 -4.5749998
3.5250001 -11.475 -4.4250002
2.625 -11.325 -4.5749998
2.625 -11.175 -4.5749998
2.7750001 -11.175 -4.5749998
2.4749999 -11.175 -4.4250002
2.625 -11.175 -4.4250002
2.4749999 -11.325 -4.2750001
2.625 -11.175 -4.2750001
2.925 -11.175 -4.2750001
2.4749999 -10.875 -4.2750001
2.625 -10.875 -4.2750001
3.075 -11.325 -4.5749998
3.075 -11.175 -4.4250002
3.2249999 -11.175 -4.2750001
3.375 -11.325 -4.4250002
3.5250001 -11.325 -4.2750001
2.925 -11.475 -4.125
2.7750001 -11.475 -3.9749999
2.7750001 -11.475 -3.825
2.925 -11.475 -3.825
3.2249999 -11.475 -4.125
3.075 -11.625 -3.9749999
3.075 -11.775 -3.825
3.2249999 -11.775 -3.675
3.375 -11.775 -3.825
3.2249999 -11.475 -3.675
2.4749999 -11.325 -3.9749999
2.4749999 -11.175 -3.9749999
2.625 -11.025 -3.9749999
2.925 -11.325 -3.825
2.925 -11.175 -3.825
2.4749999 -11.025 -3.675
2.4749999 -10.875 -3.675
3.5250001 -11.175 -4.125
3.375 -10.875 -4.125
3.2249999 -10.875 -3.825
3.675 -11.475 -4.2750001
4.125 -11.625 -4.2750001
3.675 -11.775 -3.825
3.825 -11.325 -3.675
2.4749999 -10.575 -3.9749999
2.7750001 -10.725 -4.125
2.925 -10.725 -3.9749999
2.625 -10.575 -3.825
2.925 -10.725 -3.825
2.625 -10.425 -3.675
2.925 -10.425 -3.675
3.2249999 -10.575 -3.825
3.2249999 -10.575 -3.675
2.925 -11.475 -3.5250001
3.2249999 -11.625 -3.5250001
3.5250001 -11.625 -3.5250001
3.375 -11.625 -3.375
3.375 -11.475 -3.2249999
3.5250001 -11.625 -3.075
2.7750001 -11.175 -3.5250001
2.7750001 -11.175 -3.375
2.625 -11.025 -3.5250001
2.4749999 -10.875 -3.5250001
2.4749999 -10.875 -3.375
2.925 -11.025 -3.5250001
2.925 -10.875 -3.375
2.925 -11.175 -3.2249999
2.625 -10.875 -3.075
2.7750001 -11.025 -3.2249999
3.2249999 -11.175 -3.375
3.075 -11.325 -3.2249999
3.375 -11.325 -3.075
3.375 -11.025 -3.075
2.925 -11.025 -2.925
2.925 -10.875 -2.925
3.2249999 -11.025 -2.7750001
3.2249999 -10.875 -2.7750001
3.5250001 -11.025 -2.625
3.375 -10.875 -2.4749999
3.825 -11.925 -3.375
4.125 -11.475 -3.5250001
3.675 -11.475 -3.2249999
3.675 -11.025 -3.075
3.675 -11.775 -2.925
3.9749999 -11.925 -2.925
4.4250002 -11.475 -2.4749999
3.9749999 -11.175 -2.925
4.125 -11.325 -2.7750001
3.825 -11.175 -2.4749999
2.625 -10.575 -3.5250001
2.7750001 -10.575 -3.375
2.4749999 -10.275 -3.5250001
2.625 -10.275 -3.5250001
2.4749999 -10.425 -3.375
2.7750001 -10.275 -3.5250001
2.625 -10.575 -3.075
2.7750001 -10.425 -3.2249999
2.925 -10.425 -3.2249999
2.7750001 -10.275 -3.2249999
3.2249999 -10.575 -3.5250001
3.5250001 -10.575 -3.375
3.075 -10.725 -3.2249999
3.2249999 -10.575 -3.075
3.375 -10.725 -3.075
3.075 -10.275 -3.2249999
3.375 -10.275 -3.2249999
2.4749999 -10.125 -3.375
2.7750001 -10.125 -3.375
3.075 -10.125 -3.2249999
2.625 -10.725 -2.925
2.625 -10.575 -2.925
2.625 -10.425 -2.7750001
2.925 -10.425 -2.7750001
2.7750001 -10.575 -2.625
2.925 -10.575 -2.4749999
2.4749999 -10.275 -2.4749999
3.5250001 -10.575 -2.925
3.075 -10.725 -2.625
2.4749999 -9.9750004 -2.925
2.7750001 -9.9750004 -2.925
2.925 -9.9750004 -2.7750001
2.625 -9.9750004 -2.4749999
2.4749999 -9.8249998 -2.625
2.4749999 -9.8249998 -2.4749999
2.625 -9.8249998 -2.4749999
2.4749999 -9.6750002 -2.4749999
2.625 -9.6750002 -2.4749999
2.7750001 -9.8249998 -2.625
2.7750001 -9.8249998 -2.4749999
2.925 -9.8249998 -2.4749999
3.075 -9.9750004 -2.625
3.9749999 -10.575 -3.2249999
3.825 -10.725 -2.7750001
4.5749998 -12.075 -1.725
4.5749998 -12.375 -0.67500001
0.075000003 -9.8249998 -2.325
0.22499999 -9.8249998 -2.325
0.075000003 -9.6750002 -2.325
0.22499999 -9.6750002 -2.325
0.22499999 -9.8249998 -2.175
0.375 -9.8249998 -2.325
0.375 -9.6750002 -2.325
0.52499998 -9.6750002 -2.325
0.375 -9.6750002 -2.175
0.52499998 -9.6750002 -2.175
0.075000003 -9.6750002 -2.0250001
0.22499999 -9.6750002 -2.0250001
0.22499999 -9.6750002 -1.875
0.375 -9.6750002 -2.0250001
0.375 -9.6750002 -1.875
0.52499998 -9.6750002 -1.875
0.67500001 -9.6750002 -2.325
0.82499999 -9.6750002 -2.325
0.67500001 -9.6750002 -2.175
0.82499999 -9.6750002 -2.175
1.125 -9.8249998 -2.325
0.97500002 -9.6750002 -2.325
0.97500002 -9.6750002 -2.175
1.125 -9.6750002 -2.175
0.67500001 -9.6750002 -2.0250001
0.67500001 -9.6750002 -1.875
1.125 -9.6750002 -2.0250001
0.97500002 -9.6750002 -1.875
1.125 -9.6750002 -1.875
0.075000003 -9.6750002 -1.725
0.22499999 -9.6750002 -1.725
0.075000003 -9.6750002 -1.575
0.22499999 -9.6750002 -1.575
0.375 -9.6750002 -1.725
0.375 -9.6750002 -1.575
0.075000003 -9.6750002 -1.425
0.22499999 -9.6750002 -1.425
0.22499999 -9.6750002 -1.275
0.52499998 -9.8249998 -1.275
0.97500002 -9.6750002 -1.725
0.82499999 -9.8249998 -1.275
0.97500002 -9.8249998 -1.275
1.125 -9.6750002 -1.275
2.325 -10.275 -2.325
1.575 -9.9750004 -2.325
1.725 -9.9750004 -2.175
1.275 -9.8249998 -2.325
1.425 -9.8249998 -2.325
1.275 -9.8249998 -2.175
1.275 -9.6750002 -2.175
1.575 -9.8249998 -2.325
1.725 -9.6750002 -2.325
1.575 -9.8249998 -2.175
1.425 -9.6750002 -2.0250001
1.425 -9.8249998 -1.875
1.725 -9.8249998 -2.0250001
1.725 -9.8249998 -1.875
1.725 -9.6750002 -1.875
1.875 -10.125 -2.325
2.0250001 -10.125 -2.325
1.875 -9.9750004 -2.325
2.0250001 -9.9750004 -2.175
2.175 -10.125 -2.325
2.175 -9.9750004 -2.325
2.325 -10.125 -2.175
1.875 -9.8249998 -2.175
2.0250001 -9.6750002 -2.175
2.0250001 -9.9750004 -2.0250001
1.875 -9.9750004 -1.875
2.175 -10.125 -1.875
2.325 -9.9750004 -1.875
2.0250001 -9.6750002 -1.875
1.425 -9.8249998 -1.725
1.275 -9.6750002 -1.725
1.725 -9.8249998 -1.725
1.575 -9.6750002 -1.575
1.275 -9.6750002 -1.425
1.275 -9.8249998 -1.275
1.275 -9.6750002 -1.275
1.425 -9.6750002 -1.275
1.725 -9.6750002 -1.425
1.575 -9.8249998 -1.275
1.725 -9.8249998 -1.275
1.575 -9.6750002 -1.275
2.0250001 -9.9750004 -1.725
2.175 -10.125 -1.725
2.325 -9.8249998 -1.725
2.325 -10.125 -1.275
2.175 -9.9750004 -1.275
2.325 -9.9750004 -1.275
1.875 -9.8249998 -1.425
1.875 -9.8249998 -1.275
2.0250001 -9.8249998 -1.275
2.325 -9.8249998 -1.425
0.22499999 -9.8249998 -1.125
0.075000003 -9.6750002 -1.125
0.22499999 -9.6750002 -1.125
0.22499999 -9.6750002 -0.97500002
0.22499999 -9.6750002 -0.82499999
0.075000003 -9.6750002 -0.67500001
0.22499999 -9.6750002 -0.67500001
1.125 -9.6750002 -0.82499999
0.22499999 -9.6750002 -0.52499998
0.075000003 -9.6750002 -0.375
0.22499999 -9.6750002 -0.375
0.22499999 -9.6750002 -0.22499999
0.075000003 -9.6750002 -0.075000003
0.22499999 -9.6750002 -0.075000003
0.375 -9.6750002 -0.075000003
0.97500002 -9.6750002 -0.22499999
1.125 -9.6750002 -0.22499999
0.97500002 -9.6750002 -0.075000003
1.275 -9.6750002 -1.125
1.575 -9.8249998 -1.125
1.725 -9.8249998 -1.125
1.575 -9.6750002 -1.125
1.725 -9.6750002 -0.97500002
1.425 -9.6750002 -0.82499999
1.275 -9.6750002 -0.67500001
1.425 -9.6750002 -0.67500001
1.575 -9.8249998 -0.82499999
1.725 -9.6750002 -0.82499999
1.725 -9.8249998 -0.67500001
2.325 -9.9750004 -1.125
1.875 -9.8249998 -1.125
2.0250001 -9.8249998 -1.125
2.175 -9.9750004 -0.82499999
2.175 -9.9750004 -0.67500001
2.325 -9.9750004 -0.67500001
1.875 -9.8249998 -0.82499999
2.0250001 -9.8249998 -0.82499999
2.0250001 -9.8249998 -0.67500001
1.875 -9.6750002 -0.67500001
2.325 -9.6750002 -0.82499999
1.575 -9.6750002 -0.375
1.275 -9.6750002 -0.22499999
1.425 -9.6750002 -0.22499999
1.275 -9.6750002 -0.075000003
1.425 -9.6750002 -0.075000003
1.575 -9.8249998 -0.22499999
1.725 -9.8249998 -0.22499999
1.575 -9.6750002 -0.22499999
1.725 -9.8249998 -0.075000003
1.575 -9.6750002 -0.075000003
2.325 -9.8249998 -0.52499998
2.175 -9.6750002 -0.52499998
2.175 -9.6750002 -0.375
1.875 -9.9750004 -0.22499999
2.0250001 -9.9750004 -0.075000003
2.175 -9.9750004 -0.22499999
2.325 -9.9750004 -0.22499999
2.325 -9.9750004 -0.075000003
1.875 -9.8249998 -0.22499999
2.0250001 -9.8249998 -0.22499999
1.875 -9.8249998 -0.075000003
3.2249999 -10.875 -2.325
3.5250001 -10.875 -1.875
4.125 -11.475 -2.175
4.7249999 -11.775 -2.325
4.4250002 -11.775 -1.875
3.825 -11.175 -2.325
3.675 -11.175 -2.175
4.125 -11.325 -2.175
4.125 -11.775 -1.725
4.125 -11.625 -1.275
3.825 -11.175 -1.575
3.9749999 -11.025 -1.575
3.675 -11.025 -1.425
4.125 -11.025 -1.425
2.7750001 -10.575 -2.325
2.925 -10.575 -2.175
2.625 -10.425 -2.325
2.4749999 -10.275 -2.325
2.625 -10.275 -2.175
2.7750001 -10.275 -2.175
2.4749999 -10.275 -1.875
2.7750001 -10.425 -1.875
3.075 -10.725 -2.325
3.075 -10.725 -2.0250001
3.2249999 -10.725 -2.0250001
3.075 -10.575 -1.875
3.375 -10.575 -2.0250001
3.2249999 -10.425 -2.0250001
3.375 -10.275 -1.875
2.4749999 -9.9750004 -2.325
2.7750001 -9.9750004 -2.175
2.625 -9.8249998 -2.325
2.4749999 -9.8249998 -2.175
2.925 -9.8249998 -2.325
2.7750001 -9.6750002 -2.175
2.625 -9.6750002 -2.0250001
2.925 -9.6750002 -1.875
3.075 -10.125 -2.175
3.075 -9.8249998 -2.325
3.2249999 -9.8249998 -2.175
3.2249999 -10.125 -1.875
3.075 -9.6750002 -2.0250001
2.7750001 -10.425 -1.725
2.925 -10.425 -1.725
2.925 -10.275 -1.575
2.625 -10.275 -1.275
2.925 -10.425 -1.275
2.925 -10.275 -1.275
3.2249999 -10.725 -1.575
3.5250001 -10.725 -1.725
3.5250001 -10.275 -1.725
3.5250001 -10.575 -1.275
3.2249999 -10.425 -1.425
3.2249999 -10.425 -1.275
2.4749999 -10.125 -1.725
2.625 -10.125 -1.725
2.7750001 -9.8249998 -1.575
2.925 -9.6750002 -1.575
2.625 -10.125 -1.275
3.2249999 -9.6750002 -1.575
3.075 -9.9750004 -1.425
3.2249999 -9.6750002 -1.425
3.2249999 -9.6750002 -1.275
3.675 -10.575 -1.875
3.675 -9.9750004 -2.0250001
3.9749999 -10.125 -1.875
3.9749999 -10.725 -1.575
3.9749999 -10.425 -1.425
3.375 -10.875 -0.075000003
4.125 -11.625 -1.125
4.4250002 -11.625 -1.125
3.825 -10.875 -0.82499999
4.5749998 -11.175 -0.97500002
4.125 -11.175 -0.375
3.825 -10.875 -0.52499998
3.825 -11.175 -0.075000003
4.2750001 -11.325 -0.075000003
2.7750001 -10.275 -1.125
2.7750001 -10.275 -0.82499999
2.7750001 -10.275 -0.67500001
3.075 -10.425 -1.125
3.075 -10.275 -1.125
3.075 -10.575 -0.82499999
3.075 -10.425 -0.67500001
3.375 -10.425 -0.82499999
2.4749999 -10.125 -1.125
2.4749999 -9.9750004 -1.125
2.4749999 -10.125 -0.82499999
2.4749999 -10.125 -0.67500001
2.625 -9.8249998 -0.67500001
2.625 -10.275 -0.52499998
2.925 -10.425 -0.375
2.925 -10.275 -0.22499999
2.7750001 -10.425 -0.075000003
2.925 -10.425 -0.075000003
3.2249999 -10.575 -0.52499998
3.2249999 -10.575 -0.22499999
3.2249999 -10.725 -0.075000003
3.075 -10.575 -0.075000003
3.075 -10.275 -0.075000003
2.625 -10.125 -0.52499998
2.7750001 -10.125 -0.52499998
2.4749999 -9.8249998 -0.375
2.4749999 -10.125 -0.22499999
2.625 -10.125 -0.22499999
2.625 -10.125 -0.075000003
2.7750001 -9.9750004 -0.22499999
2.7750001 -9.9750004 -0.075000003
2.4749999 -9.8249998 -0.075000003
2.925 -9.6750002 -0.075000003
3.2249999 -9.6750002 -0.52499998
4.2750001 -10.725 -0.97500002
3.9749999 -9.9750004 -0.075000003
5.0250001 -12.675 -3.075
4.875 -12.975 -2.4749999
5.3249998 -13.125 -2.625
5.0250001 -14.025 -1.875
4.875 -13.725 -1.725
5.0250001 -12.075 -1.875
4.875 -12.225 -1.275
4.875 -11.625 -0.375
5.4749999 -7.5749998 -4.875
5.625 -7.2750001 -5.0250001
5.7750001 -7.4250002 -4.875
6.6750002 -7.4250002 -5.4749999
6.9749999 -7.2750001 -5.625
6.5250001 -7.875 -5.3249998
5.9250002 -6.9749999 -5.3249998
5.7750001 -7.125 -5.1750002
5.4749999 -6.6750002 -4.875
5.625 -6.6750002 -4.875
5.3249998 -6.0749998 -5.0250001
5.1750002 -6.0749998 -4.875
5.3249998 -6.0749998 -4.875
6.0749998 -6.8249998 -5.4749999
7.125 -7.125 -5.7750001
5.1750002 -5.9250002 -4.875
5.625 -5.7750001 -5.1750002
5.7750001 -5.7750001 -5.3249998
5.625 -5.4749999 -5.1750002
5.9250002 -5.625 -5.3249998
5.4749999 -5.9250002 -5.0250001
5.625 -5.9250002 -5.0250001
5.4749999 -5.9250002 -4.875
5.3249998 -5.0250001 -4.875
